ply
format ascii 1.0
element vertex 788
property float x
property float y
property float z
end_header
0.18184208869934082 -0.14426502585411072 0.16630053520202637
0.18682855367660522 -0.1491701304912567 0.14012980461120605
0.19594144821166992 -0.14515918493270874 0.14325416088104248
0.19752413034439087 -0.15587246417999268 0.1322607398033142
0.1951940655708313 -0.16083699464797974 0.11821115016937256
0.21756601333618164 -0.1809132993221283 0.07966011762619019
0.22378623485565186 -0.193132221698761 0.0590549111366272
0.22679007053375244 -0.1990966796875 0.0480039119720459
0.24241197109222412 -0.2110518217086792 0.04890727996826172
-0.4136810004711151 -0.12475001811981201 0.21812546253204346
-0.40673261880874634 -0.11900877952575684 0.22239702939987183
-0.37645477056503296 -0.0987318754196167 0.26305580139160156
-0.34665027260780334 -0.08152911067008972 0.2821497321128845
-0.3440410792827606 -0.07817661762237549 0.297741174697876
-0.33123350143432617 -0.07241511344909668 0.2989896535873413
-0.32931292057037354 -0.06850424408912659 0.29566091299057007
-0.3079181909561157 -0.06904283165931702 0.3112301230430603
-0.30960410833358765 -0.065766841173172 0.3074338436126709
-0.29846736788749695 -0.08238160610198975 0.31600242853164673
-0.2896006107330322 -0.07236525416374207 0.3133504390716553
-0.2902071177959442 -0.0537741482257843 0.3156701922416687
-0.2704966962337494 -0.06329202651977539 0.3261963129043579
-0.2861606180667877 -0.06536811590194702 0.33372533321380615
-0.26488903164863586 -0.062270909547805786 0.32866865396499634
-0.2534608244895935 -0.05769181251525879 0.3343278169631958
-0.258418470621109 -0.05370980501174927 0.34005260467529297
-0.24626100063323975 -0.04948180913925171 0.34091395139694214
-0.23166397213935852 -0.05511665344238281 0.3449179530143738
-0.23049479722976685 -0.053486377000808716 0.34378063678741455
-0.21557307243347168 -0.06574845314025879 0.3426703214645386
-0.21634143590927124 -0.05665108561515808 0.3422431945800781
-0.20054751634597778 -0.047164589166641235 0.3431359529495239
-0.19591140747070312 -0.04578322172164917 0.34597843885421753
-0.18948525190353394 -0.04291883111000061 0.34879088401794434
-0.18118661642074585 -0.046302467584609985 0.3553880453109741
-0.1713193655014038 -0.05075410008430481 0.35575592517852783
-0.17462173104286194 -0.046175599098205566 0.346257746219635
-0.164520263671875 -0.041929155588150024 0.35811567306518555
-0.1517566442489624 -0.04549849033355713 0.3568687438964844
-0.1447163224220276 -0.045200198888778687 0.34408748149871826
-0.13781750202178955 -0.0458395779132843 0.3572288155555725
-0.13254201412200928 -0.046849727630615234 0.35258424282073975
-0.12719744443893433 -0.04949721693992615 0.35372263193130493
-0.11324626207351685 -0.046409279108047485 0.35633623600006104
-0.10589894652366638 -0.04431033134460449 0.33952248096466064
-0.11044976115226746 -0.05008816719055176 0.3585869073867798
-0.09964233636856079 -0.04553908109664917 0.3486412763595581
-0.09618255496025085 -0.0549277663230896 0.3509182333946228
-0.08298131823539734 -0.04299706220626831 0.35157400369644165
-0.0771755576133728 -0.06368011236190796 0.3507315516471863
-0.0608559250831604 -0.03548306226730347 0.3444775938987732
-0.06000077724456787 -0.05776619911193848 0.3474392890930176
-0.05401894450187683 -0.050178587436676025 0.3483998775482178
-0.044755905866622925 -0.06178617477416992 0.3380187749862671
-0.03356364369392395 -0.05431970953941345 0.3371851444244385
-0.029785335063934326 -0.04764091968536377 0.3366634249687195
-0.010095149278640747 -0.05199623107910156 0.3299720287322998
-0.02099788188934326 -0.0495736300945282 0.3269783854484558
0.0016514062881469727 -0.06907612085342407 0.33211052417755127
0.004196226596832275 -0.06322497129440308 0.3252675533294678
-0.0009495019912719727 -0.07348278164863586 0.32024919986724854
0.01575911045074463 -0.061909615993499756 0.3176918029785156
0.009369492530822754 -0.06937757134437561 0.32098472118377686
0.005499601364135742 -0.061180830001831055 0.2889448404312134
0.029495835304260254 -0.0580689013004303 0.3223390579223633
0.04013419151306152 -0.07051032781600952 0.3027733564376831
0.04236489534378052 -0.061660826206207275 0.30958837270736694
0.04379916191101074 -0.07989764213562012 0.29930514097213745
0.05178183317184448 -0.07706007361412048 0.28988802433013916
0.06346726417541504 -0.07483929395675659 0.2803819179534912
0.0726466178894043 -0.08169227838516235 0.28017812967300415
0.06622427701950073 -0.07948988676071167 0.26987695693969727
0.08476638793945312 -0.09858262538909912 0.2629726529121399
0.0913730263710022 -0.07911115884780884 0.26391100883483887
0.10038352012634277 -0.09700363874435425 0.2618364691734314
0.10500860214233398 -0.09378480911254883 0.2575671672821045
0.11341738700866699 -0.09847080707550049 0.24896574020385742
0.1246786117553711 -0.10502064228057861 0.24407261610031128
0.12531441450119019 -0.12238943576812744 0.23877346515655518
0.142738938331604 -0.11220219731330872 0.23270964622497559
0.1464030146598816 -0.11645781993865967 0.21178245544433594
0.14411258697509766 -0.11230447888374329 0.2058815360069275
0.15208208560943604 -0.11800414323806763 0.20331573486328125
0.15168160200119019 -0.1358434557914734 0.19763422012329102
0.17616218328475952 -0.13958990573883057 0.17138874530792236
0.17285698652267456 -0.14573922753334045 0.16724121570587158
0.1764611005783081 -0.14068755507469177 0.1632167100906372
0.18793046474456787 -0.15282905101776123 0.15110039710998535
0.19521725177764893 -0.16300532221794128 0.13521748781204224
0.1908699870109558 -0.16236424446105957 0.13380223512649536
0.20129013061523438 -0.17565560340881348 0.1187518835067749
0.2192046046257019 -0.19342848658561707 0.0805516242980957
0.21866589784622192 -0.20397323369979858 0.05765533447265625
0.22583222389221191 -0.21784520149230957 0.056518375873565674
0.2250157594680786 -0.22522294521331787 0.030154109001159668
-0.41633620858192444 -0.13633942604064941 0.21660220623016357
-0.41059738397598267 -0.11803668737411499 0.2364206314086914
-0.39535629749298096 -0.11744806170463562 0.24545782804489136
-0.3930392265319824 -0.11125755310058594 0.26198410987854004
-0.36335527896881104 -0.08955833315849304 0.2712209224700928
-0.35970932245254517 -0.08263516426086426 0.27422964572906494
-0.33756905794143677 -0.0819820761680603 0.2992737293243408
-0.3339604437351227 -0.07746335864067078 0.2965651750564575
-0.32021284103393555 -0.08470281958580017 0.31177377700805664
-0.32248565554618835 -0.08467817306518555 0.3099743127822876
-0.3095230460166931 -0.07670602202415466 0.3156702518463135
-0.31056836247444153 -0.08085113763809204 0.3212343454360962
-0.2961934804916382 -0.08142700791358948 0.32289230823516846
-0.2948179244995117 -0.06330937147140503 0.3130784034729004
-0.2788745164871216 -0.06998229026794434 0.3170589804649353
-0.27262723445892334 -0.07273411750793457 0.3405812978744507
-0.2788327634334564 -0.07288414239883423 0.32830142974853516
-0.25981783866882324 -0.07763832807540894 0.3503917455673218
-0.25626733899116516 -0.07150053977966309 0.3444342017173767
-0.23620915412902832 -0.06777697801589966 0.340503454208374
-0.23239749670028687 -0.053183794021606445 0.3460448980331421
-0.22400817275047302 -0.06333959102630615 0.3457278609275818
-0.22730782628059387 -0.06054729223251343 0.34843671321868896
-0.22501739859580994 -0.06031101942062378 0.3519695997238159
-0.2042803168296814 -0.05555087327957153 0.3438303470611572
-0.20120841264724731 -0.05992931127548218 0.3433518409729004
-0.17697978019714355 -0.05708673596382141 0.3570514917373657
-0.18590596318244934 -0.06201326847076416 0.3451659083366394
-0.1756504774093628 -0.06243261694908142 0.35346537828445435
-0.17394784092903137 -0.05203813314437866 0.3545459508895874
-0.168925940990448 -0.054248273372650146 0.3541746139526367
-0.1547960340976715 -0.06062471866607666 0.36128342151641846
-0.14459842443466187 -0.05309566855430603 0.3529283404350281
-0.13533616065979004 -0.046623408794403076 0.35522377490997314
-0.13090014457702637 -0.04961073398590088 0.3448598384857178
-0.13258767127990723 -0.047455042600631714 0.3501509428024292
-0.10976451635360718 -0.05887395143508911 0.3493804335594177
-0.11889505386352539 -0.05620381236076355 0.3529866933822632
-0.1086699366569519 -0.060572415590286255 0.35284316539764404
-0.09375736117362976 -0.05477055907249451 0.34650635719299316
-0.09342128038406372 -0.05699285864830017 0.3530772924423218
-0.08617416024208069 -0.06393718719482422 0.36154258251190186
-0.06914156675338745 -0.0652008056640625 0.3370107412338257
-0.05963173508644104 -0.05706965923309326 0.34979915618896484
-0.051698923110961914 -0.06972372531890869 0.33535921573638916
-0.05762624740600586 -0.06508326530456543 0.3410625457763672
-0.04419991374015808 -0.06253063678741455 0.33959174156188965
-0.040410131216049194 -0.06322658061981201 0.34105002880096436
-0.04590615630149841 -0.06529340147972107 0.34239840507507324
-0.03243899345397949 -0.06556624174118042 0.3310732841491699
-0.02440696954727173 -0.06756591796875 0.32844269275665283
-0.015461385250091553 -0.06552684307098389 0.33199918270111084
-0.010014712810516357 -0.06955161690711975 0.32970017194747925
-0.0032993853092193604 -0.07505941390991211 0.3221513032913208
0.011291921138763428 -0.07003521919250488 0.3265066146850586
0.017922401428222656 -0.07431969046592712 0.32835841178894043
0.02506035566329956 -0.0712631344795227 0.309759259223938
0.0177115797996521 -0.08294019103050232 0.31139838695526123
0.04559135437011719 -0.08173725008964539 0.3102397918701172
0.04235267639160156 -0.08728200197219849 0.3051621913909912
0.057828664779663086 -0.08350491523742676 0.30033767223358154
0.0526924729347229 -0.0838870108127594 0.2885720729827881
0.06251579523086548 -0.08603191375732422 0.2893640995025635
0.06126493215560913 -0.08916497230529785 0.2800477147102356
0.07544398307800293 -0.0888943076133728 0.29052305221557617
0.08568990230560303 -0.09320616722106934 0.2784024477005005
0.0999411940574646 -0.10139131546020508 0.2746087312698364
0.10242956876754761 -0.0949469804763794 0.2641230821609497
0.11097079515457153 -0.1131448745727539 0.26799726486206055
0.10978537797927856 -0.11065554618835449 0.25025618076324463
0.10713940858840942 -0.11966589093208313 0.25083959102630615
0.12180358171463013 -0.11580076813697815 0.24706685543060303
0.12672364711761475 -0.11379411816596985 0.22626131772994995
0.13650166988372803 -0.1187601089477539 0.21539896726608276
0.15064269304275513 -0.12174588441848755 0.21374118328094482
0.14463436603546143 -0.14046165347099304 0.21677982807159424
0.1545809507369995 -0.14407742023468018 0.1848326325416565
0.17347878217697144 -0.13640406727790833 0.18856686353683472
0.16520750522613525 -0.14392533898353577 0.17067408561706543
0.17773592472076416 -0.1517220139503479 0.1725924015045166
0.17507469654083252 -0.15334641933441162 0.15620523691177368
0.19675636291503906 -0.16173303127288818 0.1505899429321289
0.20100295543670654 -0.16891103982925415 0.13654744625091553
0.21266132593154907 -0.190413236618042 0.12202578783035278
-0.41011640429496765 -0.1401638388633728 0.2087913155555725
-0.4184276759624481 -0.13418066501617432 0.23239284753799438
-0.3969482481479645 -0.11015766859054565 0.24471044540405273
-0.3833532929420471 -0.12124252319335938 0.254336953163147
-0.38042503595352173 -0.11089640855789185 0.2716788053512573
-0.3453480005264282 -0.09632152318954468 0.2916407585144043
-0.3426750898361206 -0.09583985805511475 0.290691614151001
-0.3272629380226135 -0.0918378233909607 0.3027837872505188
-0.33743035793304443 -0.08964717388153076 0.30917513370513916
-0.3097341060638428 -0.08232042193412781 0.29502296447753906
-0.3196103274822235 -0.09068840742111206 0.31066596508026123
-0.30102041363716125 -0.0864005982875824 0.311015248298645
-0.3045490086078644 -0.08344757556915283 0.32723331451416016
-0.2904260754585266 -0.0750037431716919 0.3218955993652344
-0.2840145230293274 -0.0830107033252716 0.3259495496749878
-0.27309325337409973 -0.06640475988388062 0.3370012044906616
-0.26986175775527954 -0.08204439282417297 0.31797999143600464
-0.25716105103492737 -0.0724744200706482 0.34983211755752563
-0.25854384899139404 -0.07867777347564697 0.3405269384384155
-0.24091726541519165 -0.07999128103256226 0.34348738193511963
-0.24098312854766846 -0.0796891450881958 0.33992576599121094
-0.23670238256454468 -0.07759049534797668 0.3359907865524292
-0.212232768535614 -0.06370022892951965 0.34227877855300903
-0.21079879999160767 -0.07047316431999207 0.3482997417449951
-0.20375806093215942 -0.07445541024208069 0.35110974311828613
-0.21398890018463135 -0.06878167390823364 0.35000449419021606
-0.19580569863319397 -0.06451946496963501 0.3563903570175171
-0.1898740530014038 -0.058247148990631104 0.3553975820541382
-0.18242686986923218 -0.07362264394760132 0.3541598916053772
-0.1653856635093689 -0.06588447093963623 0.35372912883758545
-0.16018146276474 -0.057294219732284546 0.3430631756782532
-0.1565977931022644 -0.056651920080184937 0.3512367606163025
-0.14806991815567017 -0.07431396842002869 0.3560224771499634
-0.1397075057029724 -0.0683116614818573 0.3547268509864807
-0.12676501274108887 -0.06497234106063843 0.35192251205444336
-0.13403189182281494 -0.06062889099121094 0.34717315435409546
-0.11709865927696228 -0.06274741888046265 0.3562524914741516
-0.11745995283126831 -0.06951308250427246 0.3434333801269531
-0.11720165610313416 -0.06459221243858337 0.3560776710510254
-0.10117632150650024 -0.06183144450187683 0.35488367080688477
-0.08801048994064331 -0.07177183032035828 0.36093997955322266
-0.0729905366897583 -0.06746992468833923 0.3548300266265869
-0.08173957467079163 -0.06484812498092651 0.3464399576187134
-0.0679069459438324 -0.06506046652793884 0.34538334608078003
-0.06362339854240417 -0.061644792556762695 0.34458136558532715
-0.051390767097473145 -0.06897854804992676 0.3281775712966919
-0.048644959926605225 -0.07221996784210205 0.34482836723327637
-0.03919219970703125 -0.07847702503204346 0.3394870162010193
-0.03942805528640747 -0.06899133324623108 0.33736318349838257
-0.027584880590438843 -0.0836857259273529 0.34078073501586914
-0.022001564502716064 -0.07577311992645264 0.3397740125656128
-0.019806742668151855 -0.08177775144577026 0.3248722553253174
-0.002148151397705078 -0.08212417364120483 0.34267377853393555
-0.008919626474380493 -0.07290485501289368 0.30952054262161255
0.009668111801147461 -0.0769309401512146 0.32615137100219727
0.02040266990661621 -0.09383773803710938 0.32362884283065796
0.013727068901062012 -0.08234095573425293 0.313870906829834
0.034867286682128906 -0.0814894437789917 0.3068520426750183
0.039033591747283936 -0.0913664698600769 0.3122991919517517
0.04526013135910034 -0.08949977159500122 0.3114786744117737
0.04950040578842163 -0.09419995546340942 0.2967883348464966
0.05171799659729004 -0.09127968549728394 0.3082423806190491
0.053941428661346436 -0.09544450044631958 0.293804407119751
0.07343590259552002 -0.0933675467967987 0.28867143392562866
0.08075189590454102 -0.09150698781013489 0.2783234119415283
0.07949411869049072 -0.09811660647392273 0.2679988145828247
0.0897182822227478 -0.10941457748413086 0.28109633922576904
0.08759325742721558 -0.10071885585784912 0.27100491523742676
0.10304528474807739 -0.11372938752174377 0.2627032399177551
0.10549527406692505 -0.1227523684501648 0.25756096839904785
0.11523449420928955 -0.11745426058769226 0.23954391479492188
0.14088648557662964 -0.13375121355056763 0.23907101154327393
0.12879598140716553 -0.12036046385765076 0.22792398929595947
0.13993394374847412 -0.13326960802078247 0.23535025119781494
0.14394843578338623 -0.13670587539672852 0.21125668287277222
0.1503126621246338 -0.14698141813278198 0.2060108780860901
0.15698987245559692 -0.14300888776779175 0.19332408905029297
0.1687532663345337 -0.15188348293304443 0.18700158596038818
0.1709730625152588 -0.14748966693878174 0.16902226209640503
0.1830424666404724 -0.16313797235488892 0.1651478409767151
0.19262278079986572 -0.16164648532867432 0.1502089500427246
0.19400393962860107 -0.16909682750701904 0.15299057960510254
0.1947389841079712 -0.176518976688385 0.15162181854248047
0.2080780267715454 -0.19279414415359497 0.10897469520568848
-0.39431390166282654 -0.1299813687801361 0.24233335256576538
-0.3992820382118225 -0.13213777542114258 0.25684094429016113
-0.37190309166908264 -0.11506620049476624 0.2579396963119507
-0.3717004060745239 -0.11078375577926636 0.27779102325439453
-0.3643251657485962 -0.10346969962120056 0.27564680576324463
-0.3455398976802826 -0.10347431898117065 0.2966352105140686
-0.34115344285964966 -0.09870639443397522 0.2880512475967407
-0.3408852219581604 -0.11015167832374573 0.29318904876708984
-0.3329167664051056 -0.09624379873275757 0.29531681537628174
-0.30710598826408386 -0.09319958090782166 0.3092920780181885
-0.3024815022945404 -0.09533262252807617 0.29436612129211426
-0.29595711827278137 -0.09331482648849487 0.31489694118499756
-0.28187331557273865 -0.09388136863708496 0.3259868025779724
-0.2884514033794403 -0.09652546048164368 0.3268324136734009
-0.287069171667099 -0.08592626452445984 0.3252021074295044
-0.263944149017334 -0.08371862769126892 0.326316773891449
-0.2522532641887665 -0.07226890325546265 0.33053386211395264
-0.25940224528312683 -0.08026224374771118 0.3274099826812744
-0.2456197440624237 -0.08800095319747925 0.3388044834136963
-0.2440866231918335 -0.06965672969818115 0.34741079807281494
-0.2340509295463562 -0.07221248745918274 0.3386605978012085
-0.2172832489013672 -0.07298257946968079 0.33652716875076294
-0.2226012945175171 -0.0824289321899414 0.34415334463119507
-0.21177706122398376 -0.08699288964271545 0.35392558574676514
-0.20355451107025146 -0.06996363401412964 0.35125380754470825
-0.19091841578483582 -0.08034050464630127 0.34213781356811523
-0.18338048458099365 -0.07038906216621399 0.3526291847229004
-0.1736580729484558 -0.06825602054595947 0.35724592208862305
-0.1808599829673767 -0.0662429928779602 0.3597363233566284
-0.16319680213928223 -0.07887935638427734 0.3566361665725708
-0.15384003520011902 -0.06873536109924316 0.3482525944709778
-0.1553868055343628 -0.07765930891036987 0.35075056552886963
-0.14733609557151794 -0.07023671269416809 0.34145689010620117
-0.12837821245193481 -0.07295060157775879 0.3675795793533325
-0.13189762830734253 -0.07457029819488525 0.3564114570617676
-0.10861867666244507 -0.0763075053691864 0.35484057664871216
-0.11261945962905884 -0.08502751588821411 0.3535301089286804
-0.11622780561447144 -0.06341040134429932 0.3604702949523926
-0.09268927574157715 -0.07103124260902405 0.346352219581604
-0.1005326509475708 -0.07720637321472168 0.3582913875579834
-0.08788800239562988 -0.08382940292358398 0.34135228395462036
-0.07043889164924622 -0.08020603656768799 0.35435086488723755
-0.06830593943595886 -0.07002431154251099 0.3447967767715454
-0.06019020080566406 -0.07514458894729614 0.3533897399902344
-0.061402469873428345 -0.07729977369308472 0.3408192992210388
-0.06083923578262329 -0.07906356453895569 0.34545981884002686
-0.037764519453048706 -0.08146578073501587 0.3368936777114868
-0.03233367204666138 -0.07290869951248169 0.3364790678024292
-0.029751747846603394 -0.08872148394584656 0.33538949489593506
-0.024050593376159668 -0.08838438987731934 0.33325421810150146
0.004176139831542969 -0.07561889290809631 0.32819652557373047
-0.0012411773204803467 -0.08664873242378235 0.3260266184806824
0.004921853542327881 -0.08959579467773438 0.3231077194213867
0.0044252872467041016 -0.09003925323486328 0.32752370834350586
0.014965474605560303 -0.09408354759216309 0.322359561920166
0.03131139278411865 -0.08664804697036743 0.31201666593551636
0.04533177614212036 -0.10317286849021912 0.3186335563659668
0.04475933313369751 -0.10122239589691162 0.3010213375091553
0.04790264368057251 -0.09953290224075317 0.3033549189567566
0.04895055294036865 -0.08799225091934204 0.28963232040405273
0.06087523698806763 -0.09522098302841187 0.2945933938026428
0.06613731384277344 -0.09645664691925049 0.29547667503356934
0.07236713171005249 -0.10306057333946228 0.29580992460250854
0.0806039571762085 -0.1239197850227356 0.2812514305114746
0.0926617980003357 -0.1212199330329895 0.2875863313674927
0.09989899396896362 -0.1085471510887146 0.27433109283447266
0.10325390100479126 -0.12046429514884949 0.2643616795539856
0.0979466438293457 -0.11469656229019165 0.2559070587158203
0.10748076438903809 -0.11818510293960571 0.25463277101516724
0.1187698245048523 -0.1284416913986206 0.2537189722061157
0.11830306053161621 -0.12968885898590088 0.2427964210510254
0.13630712032318115 -0.11716100573539734 0.23186242580413818
0.14250361919403076 -0.13134458661079407 0.21591413021087646
0.14424914121627808 -0.1326245665550232 0.23026615381240845
0.15452545881271362 -0.1453041434288025 0.20503920316696167
0.16194897890090942 -0.15359288454055786 0.19276368618011475
0.15098559856414795 -0.1481819748878479 0.19964110851287842
0.17417317628860474 -0.1671375334262848 0.1785264015197754
0.1884080171585083 -0.16565340757369995 0.16836333274841309
0.18986374139785767 -0.174177885055542 0.1626720428466797
0.1782413125038147 -0.17822480201721191 0.1445673704147339
0.2040618658065796 -0.1940227746963501 0.13009309768676758
-0.39659470319747925 -0.13800624012947083 0.24042439460754395
-0.38301360607147217 -0.13463819026947021 0.24485093355178833
-0.38311827182769775 -0.12324750423431396 0.262562096118927
-0.3674136996269226 -0.1173560619354248 0.2747986316680908
-0.360786110162735 -0.12275385856628418 0.28181231021881104
-0.3424946367740631 -0.11616888642311096 0.2919221520423889
-0.3464861810207367 -0.11481490731239319 0.2908824682235718
-0.3428514301776886 -0.12269747257232666 0.296142041683197
-0.33430206775665283 -0.11179530620574951 0.3140699863433838
-0.32097741961479187 -0.10299530625343323 0.31577908992767334
-0.30490821599960327 -0.09658074378967285 0.31836414337158203
-0.2852225601673126 -0.09680628776550293 0.31725573539733887
-0.3002813160419464 -0.09643611311912537 0.321946382522583
-0.28283455967903137 -0.09406167268753052 0.3276938199996948
-0.2719188332557678 -0.08364206552505493 0.33274418115615845
-0.27659860253334045 -0.08679646253585815 0.3265491724014282
-0.25397002696990967 -0.09843197464942932 0.33954834938049316
-0.2463758885860443 -0.09181156754493713 0.3387254476547241
-0.2441009283065796 -0.08459216356277466 0.34493792057037354
-0.23640242218971252 -0.10122421383857727 0.34403443336486816
-0.22458189725875854 -0.09321606159210205 0.34554773569107056
-0.2248765230178833 -0.08558490872383118 0.34735268354415894
-0.21228456497192383 -0.0868120789527893 0.34847164154052734
-0.21315783262252808 -0.08283931016921997 0.3473513126373291
-0.19607508182525635 -0.09000331163406372 0.3445360064506531
-0.19768372178077698 -0.08513176441192627 0.3519386053085327
-0.17882251739501953 -0.07933881878852844 0.3570502996444702
-0.17265117168426514 -0.08965042233467102 0.34972822666168213
-0.1715776026248932 -0.07328552007675171 0.3509840965270996
-0.1691209375858307 -0.0874294638633728 0.35543179512023926
-0.1573919653892517 -0.08642566204071045 0.3593420386314392
-0.1464393138885498 -0.07285130023956299 0.3555411696434021
-0.14427343010902405 -0.08558142185211182 0.35349053144454956
-0.13259854912757874 -0.0790819525718689 0.3570915460586548
-0.1293061077594757 -0.0795123279094696 0.3475528359413147
-0.11709678173065186 -0.08965533971786499 0.3508787155151367
-0.11794042587280273 -0.0838853120803833 0.3578444719314575
-0.09150105714797974 -0.08679714798927307 0.33915722370147705
-0.10292869806289673 -0.07467421889305115 0.34718191623687744
-0.09064170718193054 -0.08620008826255798 0.3382610082626343
-0.0815015435218811 -0.07356688380241394 0.3560487627983093
-0.07001698017120361 -0.08517885208129883 0.35298317670822144
-0.06231111288070679 -0.09507089853286743 0.34305500984191895
-0.06262117624282837 -0.08013224601745605 0.3425999879837036
-0.0591396689414978 -0.08918339014053345 0.3448833227157593
-0.05107554793357849 -0.09265202283859253 0.34596145153045654
-0.03889229893684387 -0.09268707036972046 0.3380967378616333
-0.034938305616378784 -0.08856865763664246 0.3438277244567871
-0.024292945861816406 -0.09397611021995544 0.3398623466491699
-0.009295493364334106 -0.08726924657821655 0.33867794275283813
-0.016967356204986572 -0.09278875589370728 0.3269820213317871
0.008376359939575195 -0.0892079770565033 0.32495439052581787
0.013637840747833252 -0.10264599323272705 0.32081031799316406
0.01586604118347168 -0.0992136001586914 0.30587446689605713
0.018492460250854492 -0.10332649946212769 0.30959761142730713
0.04556983709335327 -0.10052576661109924 0.3036465644836426
0.02951711416244507 -0.10333603620529175 0.29705071449279785
0.05109834671020508 -0.11070340871810913 0.3068608045578003
0.049775540828704834 -0.11107900738716125 0.2938215732574463
0.0622859001159668 -0.10866647958755493 0.28940117359161377
0.06687211990356445 -0.109076589345932 0.29279476404190063
0.07631182670593262 -0.11938852071762085 0.28494417667388916
0.08755481243133545 -0.1185641884803772 0.27810943126678467
0.08959424495697021 -0.12021344900131226 0.2712406516075134
0.10716885328292847 -0.12282457947731018 0.26029253005981445
0.09805917739868164 -0.1294478178024292 0.2694549560546875
0.11088663339614868 -0.13504928350448608 0.25365543365478516
0.11747902631759644 -0.12854424118995667 0.24897527694702148
0.120394766330719 -0.13771668076515198 0.24157500267028809
0.13050103187561035 -0.14270973205566406 0.22985678911209106
0.14030516147613525 -0.1526046097278595 0.22442501783370972
0.1508115530014038 -0.15640360116958618 0.21405887603759766
0.14629429578781128 -0.15088003873825073 0.2123699188232422
0.15726101398468018 -0.1660730242729187 0.1971222162246704
0.16598480939865112 -0.16504734754562378 0.187555193901062
0.18070131540298462 -0.18316775560379028 0.18706905841827393
0.17687904834747314 -0.17821460962295532 0.17307382822036743
0.17745476961135864 -0.192850261926651 0.16677963733673096
-0.403577983379364 -0.15208351612091064 0.24059408903121948
-0.38990506529808044 -0.15138477087020874 0.25180792808532715
-0.3697091341018677 -0.13516855239868164 0.2582324743270874
-0.354433536529541 -0.13088268041610718 0.2718346118927002
-0.3574121594429016 -0.13486498594284058 0.27788400650024414
-0.354971319437027 -0.11326557397842407 0.2886749505996704
-0.33876481652259827 -0.11772942543029785 0.29619741439819336
-0.3466336131095886 -0.12076368927955627 0.29825901985168457
-0.3220302164554596 -0.1225491464138031 0.30229300260543823
-0.3093772232532501 -0.11223989725112915 0.31399333477020264
-0.30419155955314636 -0.11868405342102051 0.3210710287094116
-0.305354505777359 -0.11302435398101807 0.322695255279541
-0.29047343134880066 -0.11102485656738281 0.31096625328063965
-0.27862367033958435 -0.10030949115753174 0.32541120052337646
-0.2717668116092682 -0.10585707426071167 0.34253060817718506
-0.26317206025123596 -0.10609468817710876 0.339946448802948
-0.27655380964279175 -0.10672298073768616 0.3402249813079834
-0.25347843766212463 -0.09602263569831848 0.3379782438278198
-0.25143834948539734 -0.09431654214859009 0.33912891149520874
-0.2188778519630432 -0.09458348155021667 0.3388333320617676
-0.23274874687194824 -0.09873080253601074 0.3427484631538391
-0.2190205156803131 -0.08628013730049133 0.3337998390197754
-0.22050726413726807 -0.094576895236969 0.34470367431640625
-0.20839273929595947 -0.10027095675468445 0.3431462049484253
-0.207955002784729 -0.09727948904037476 0.35727739334106445
-0.17979300022125244 -0.08733192086219788 0.3389509916305542
-0.1777631640434265 -0.09862369298934937 0.3598891496658325
-0.1710953712463379 -0.09920826554298401 0.358418345451355
-0.17211288213729858 -0.0850689709186554 0.351637601852417
-0.16883820295333862 -0.095386803150177 0.35163307189941406
-0.15767747163772583 -0.09867790341377258 0.35303521156311035
-0.141698956489563 -0.08367681503295898 0.35588353872299194
-0.14991888403892517 -0.09641849994659424 0.35225850343704224
-0.1296585202217102 -0.09930020570755005 0.35731637477874756
-0.11287736892700195 -0.09537625312805176 0.35374224185943604
-0.12563550472259521 -0.1010485291481018 0.3598289489746094
-0.09876570105552673 -0.09413853287696838 0.3522247076034546
-0.11638426780700684 -0.08862856030464172 0.3508387804031372
-0.09975647926330566 -0.09623360633850098 0.35416096448898315
-0.0879080593585968 -0.09540414810180664 0.3375776410102844
-0.08751887083053589 -0.10517647862434387 0.34887826442718506
-0.06891754269599915 -0.09348881244659424 0.3472553491592407
-0.07011854648590088 -0.09289178252220154 0.35469841957092285
-0.05823203921318054 -0.09116265177726746 0.3401898145675659
-0.06803041696548462 -0.09403827786445618 0.340836763381958
-0.04286158084869385 -0.09139212965965271 0.33885657787323
-0.05010119080543518 -0.10200527310371399 0.33591651916503906
-0.028120815753936768 -0.10242414474487305 0.34659409523010254
-0.027603566646575928 -0.10848832130432129 0.33792221546173096
-0.02180945873260498 -0.09285712242126465 0.3288739323616028
-0.014370054006576538 -0.10938763618469238 0.321353018283844
0.009728312492370605 -0.10890036821365356 0.3215690851211548
0.013287246227264404 -0.10909512639045715 0.31085139513015747
0.014108538627624512 -0.11037468910217285 0.3252508044242859
0.03357046842575073 -0.11170226335525513 0.3084444999694824
0.03648364543914795 -0.11529213190078735 0.30020201206207275
0.042829811573028564 -0.11499357223510742 0.315637469291687
0.04575753211975098 -0.10578262805938721 0.29739493131637573
0.05110597610473633 -0.12366753816604614 0.294272780418396
0.06213134527206421 -0.11632126569747925 0.28648674488067627
0.0718235969543457 -0.11447617411613464 0.2843320369720459
0.07409203052520752 -0.1361519694328308 0.2895411252975464
0.08834779262542725 -0.13256365060806274 0.2683817148208618
0.08075195550918579 -0.12842005491256714 0.2701677083969116
0.10698890686035156 -0.13321340084075928 0.27813297510147095
0.10722357034683228 -0.14040306210517883 0.25099384784698486
0.11552238464355469 -0.14440974593162537 0.24776101112365723
0.1271296739578247 -0.14397048950195312 0.24571776390075684
0.12367534637451172 -0.1426197588443756 0.24702167510986328
0.14061486721038818 -0.1523195505142212 0.2293371558189392
0.13745790719985962 -0.15793877840042114 0.2190340757369995
0.15273165702819824 -0.1547926962375641 0.22549283504486084
0.14662593603134155 -0.1676539182662964 0.2008671760559082
0.16578084230422974 -0.17129701375961304 0.20015472173690796
0.16478955745697021 -0.17922177910804749 0.18716007471084595
0.16499757766723633 -0.1831657588481903 0.17887842655181885
0.1870507001876831 -0.1915784478187561 0.16209399700164795
0.18598318099975586 -0.19997531175613403 0.15523546934127808
-0.3720765709877014 -0.13626974821090698 0.26381993293762207
-0.36145517230033875 -0.14418673515319824 0.27350908517837524
-0.36085766553878784 -0.14326709508895874 0.2748253345489502
-0.3518775403499603 -0.12552577257156372 0.2823118567466736
-0.3484926223754883 -0.12975552678108215 0.2876734137535095
-0.3324489891529083 -0.12352961301803589 0.2924816608428955
-0.320376992225647 -0.13147062063217163 0.3038330078125
-0.304006963968277 -0.12237489223480225 0.31084364652633667
-0.3005075454711914 -0.1264539659023285 0.3119242191314697
-0.29465991258621216 -0.11884689331054688 0.3223382830619812
-0.29495730996131897 -0.11204320192337036 0.3270581364631653
-0.28062885999679565 -0.11607575416564941 0.32888293266296387
-0.2790951430797577 -0.11167064309120178 0.3265400528907776
-0.2527332305908203 -0.1252700388431549 0.3337295651435852
-0.2582152485847473 -0.11309054493904114 0.32483893632888794
-0.24523180723190308 -0.10613924264907837 0.33902740478515625
-0.24688905477523804 -0.09849262237548828 0.33917731046676636
-0.2313517928123474 -0.1058836579322815 0.34170281887054443
-0.23271065950393677 -0.10414981842041016 0.34369051456451416
-0.22581464052200317 -0.10305625200271606 0.3410831689834595
-0.20785009860992432 -0.10941645503044128 0.34047555923461914
-0.19909286499023438 -0.09611865878105164 0.3448159694671631
-0.20004287362098694 -0.09598678350448608 0.34165966510772705
-0.1968836784362793 -0.09555035829544067 0.3571731448173523
-0.18031293153762817 -0.09927871823310852 0.35669732093811035
-0.16639864444732666 -0.10595059394836426 0.35022157430648804
-0.1656283140182495 -0.09777680039405823 0.3430248498916626
-0.1612861156463623 -0.09040814638137817 0.357873797416687
-0.15336647629737854 -0.10235995054244995 0.3535658121109009
-0.15347671508789062 -0.10473409295082092 0.35707759857177734
-0.14138874411582947 -0.09043669700622559 0.348124623298645
-0.13413846492767334 -0.10400781035423279 0.35743391513824463
-0.1312391757965088 -0.08942598104476929 0.3539280891418457
-0.11166775226593018 -0.09452718496322632 0.348544180393219
-0.1152891218662262 -0.10196086764335632 0.3484407663345337
-0.10352811217308044 -0.0940011739730835 0.3505769371986389
-0.10517433285713196 -0.09939578175544739 0.35274261236190796
-0.09304043650627136 -0.09293818473815918 0.35394036769866943
-0.08325213193893433 -0.09652885794639587 0.35266607999801636
-0.07685643434524536 -0.1063566505908966 0.3608427047729492
-0.06586036086082458 -0.10563963651657104 0.35089147090911865
-0.058418333530426025 -0.0991048514842987 0.34474384784698486
-0.07141005992889404 -0.10602155327796936 0.3308882713317871
-0.039851486682891846 -0.10290184617042542 0.34099650382995605
-0.04357641935348511 -0.101479172706604 0.3362100124359131
-0.03846892714500427 -0.11177176237106323 0.3348667621612549
-0.024142175912857056 -0.1004776656627655 0.3414345979690552
-0.020067691802978516 -0.11233377456665039 0.3350178003311157
-0.01342281699180603 -0.09896630048751831 0.3279057741165161
-0.003068000078201294 -0.11050304770469666 0.3184433579444885
0.0006019473075866699 -0.11055663228034973 0.32791972160339355
0.01102745532989502 -0.11482018232345581 0.3271808624267578
0.021826624870300293 -0.10899493098258972 0.3118356466293335
0.017294228076934814 -0.10972544550895691 0.3189504146575928
0.026661455631256104 -0.12586086988449097 0.29725968837738037
0.03580564260482788 -0.11711585521697998 0.31311070919036865
0.04466980695724487 -0.13393676280975342 0.30094754695892334
0.043496906757354736 -0.13432586193084717 0.29036468267440796
0.06843584775924683 -0.1298503875732422 0.3048466444015503
0.0543665885925293 -0.1288280189037323 0.3080592751502991
0.07698076963424683 -0.13121548295021057 0.2801700830459595
0.0719640851020813 -0.13067594170570374 0.29914140701293945
0.0850447416305542 -0.14358621835708618 0.2737952470779419
0.08754885196685791 -0.14461690187454224 0.271525502204895
0.0876842737197876 -0.14616328477859497 0.2660747766494751
0.10444760322570801 -0.1388854682445526 0.2594795823097229
0.10586851835250854 -0.1524161696434021 0.2581444978713989
0.1090807318687439 -0.15534546971321106 0.24933719635009766
0.1383485198020935 -0.14919814467430115 0.2507178783416748
0.12375712394714355 -0.1608765423297882 0.22073376178741455
0.13945341110229492 -0.16286161541938782 0.21089649200439453
0.14065665006637573 -0.16377973556518555 0.21793842315673828
0.15288740396499634 -0.17159295082092285 0.20401930809020996
0.1564323902130127 -0.1745736002922058 0.19304144382476807
0.17864787578582764 -0.1808306872844696 0.17571336030960083
0.17713236808776855 -0.18306156992912292 0.1763940453529358
0.19550693035125732 -0.19384336471557617 0.16513478755950928
0.1960468292236328 -0.20394596457481384 0.16132301092147827
-0.3775733411312103 -0.1550765037536621 0.2746957540512085
-0.372140109539032 -0.1508837640285492 0.27052557468414307
-0.3581007719039917 -0.15237852931022644 0.28856343030929565
-0.35047852993011475 -0.1361587643623352 0.29097890853881836
-0.35380399227142334 -0.1320769190788269 0.2838718295097351
-0.33984673023223877 -0.1423860490322113 0.2904759645462036
-0.3310467600822449 -0.1317550539970398 0.30909329652786255
-0.31474706530570984 -0.13006386160850525 0.3140268921852112
-0.3035632371902466 -0.12659847736358643 0.314586877822876
-0.3063606321811676 -0.1254388689994812 0.32275378704071045
-0.2823461592197418 -0.126722514629364 0.31082868576049805
-0.2886580228805542 -0.11612486839294434 0.32900214195251465
-0.2735198140144348 -0.11996376514434814 0.3369761109352112
-0.2604382634162903 -0.12405544519424438 0.33125168085098267
-0.25741222500801086 -0.11502230167388916 0.3397883176803589
-0.2570885121822357 -0.11290344595909119 0.32828885316848755
-0.2376050055027008 -0.11080694198608398 0.34847599267959595
-0.23619961738586426 -0.12783432006835938 0.34110772609710693
-0.2275618612766266 -0.11442849040031433 0.3475775122642517
-0.22488150000572205 -0.11609882116317749 0.349589467048645
-0.21557080745697021 -0.10527586936950684 0.34686875343322754
-0.20547258853912354 -0.11544495820999146 0.3473851680755615
-0.20265603065490723 -0.107337087392807 0.35128432512283325
-0.20435070991516113 -0.105322927236557 0.3445308208465576
-0.1830112338066101 -0.1130233108997345 0.3525303602218628
-0.1758703589439392 -0.10315454006195068 0.3533592224121094
-0.17645543813705444 -0.10562136769294739 0.3551700711250305
-0.15627449750900269 -0.11351776123046875 0.35139286518096924
-0.14768511056900024 -0.10703602433204651 0.349462628364563
-0.14586323499679565 -0.10636535286903381 0.36172378063201904
-0.14543074369430542 -0.10502922534942627 0.3584502935409546
-0.13680097460746765 -0.10621693730354309 0.34770941734313965
-0.13318461179733276 -0.10375857353210449 0.3570120334625244
-0.1159885823726654 -0.10259145498275757 0.36093175411224365
-0.11181029677391052 -0.09717470407485962 0.3500579595565796
-0.10298949480056763 -0.10061997175216675 0.35875415802001953
-0.09341499209403992 -0.09409978985786438 0.3505288362503052
-0.0916183590888977 -0.09823474287986755 0.354694128036499
-0.08193808794021606 -0.11827093362808228 0.35308361053466797
-0.06924471259117126 -0.11235344409942627 0.3484112024307251
-0.07180923223495483 -0.110595703125 0.3440117835998535
-0.05581766366958618 -0.10525691509246826 0.3328600525856018
-0.047542959451675415 -0.10940611362457275 0.3508542776107788
-0.05123448371887207 -0.11336413025856018 0.34547746181488037
-0.036287128925323486 -0.12062376737594604 0.3572160005569458
-0.03362923860549927 -0.12133574485778809 0.3406844139099121
-0.028274208307266235 -0.1093980073928833 0.3413383960723877
-0.014963477849960327 -0.11711102724075317 0.3389921188354492
-0.010308921337127686 -0.11049520969390869 0.33599960803985596
-0.006388455629348755 -0.11831337213516235 0.33635413646698
-0.002696096897125244 -0.11624801158905029 0.3189718723297119
-0.0014414787292480469 -0.11391431093215942 0.32684779167175293
0.01716029644012451 -0.11356627941131592 0.3198500871658325
0.025360286235809326 -0.12440967559814453 0.31168031692504883
0.022915959358215332 -0.10984361171722412 0.3154867887496948
0.03232806921005249 -0.12243422865867615 0.3061782717704773
0.042417049407958984 -0.14297890663146973 0.30837905406951904
0.0376129150390625 -0.12952107191085815 0.2976784110069275
0.054109811782836914 -0.1376062035560608 0.29397428035736084
0.061290621757507324 -0.1413792371749878 0.28422749042510986
0.07879638671875 -0.12902218103408813 0.28540170192718506
0.0795600414276123 -0.13956952095031738 0.2901732921600342
0.0862511396408081 -0.15443575382232666 0.27433258295059204
0.08743751049041748 -0.15013331174850464 0.26130640506744385
0.09925484657287598 -0.14666041731834412 0.2679027318954468
0.0990976095199585 -0.15624338388442993 0.2621053457260132
0.10467958450317383 -0.1640690565109253 0.26018083095550537
0.11766880750656128 -0.15599259734153748 0.24692106246948242
0.12805509567260742 -0.17013344168663025 0.24102437496185303
0.1276489496231079 -0.16974666714668274 0.2371225357055664
0.13529807329177856 -0.16601228713989258 0.23203212022781372
0.15093791484832764 -0.1838008463382721 0.21465885639190674
0.15938597917556763 -0.17574447393417358 0.2088608741760254
0.16775596141815186 -0.19500494003295898 0.19607222080230713
0.17091840505599976 -0.18777775764465332 0.18495458364486694
0.1744236946105957 -0.1916559934616089 0.18208622932434082
0.19461095333099365 -0.21523845195770264 0.16322803497314453
0.18860411643981934 -0.21769383549690247 0.15355122089385986
-0.36938080191612244 -0.15066254138946533 0.26491230726242065
-0.3749637007713318 -0.14688122272491455 0.27545440196990967
-0.3648207187652588 -0.16185453534126282 0.2838907241821289
-0.34552162885665894 -0.15453729033470154 0.28380846977233887
-0.3413016200065613 -0.14878445863723755 0.2978932857513428
-0.3502417206764221 -0.15330636501312256 0.28664928674697876
-0.31855762004852295 -0.14226442575454712 0.3073849081993103
-0.31687456369400024 -0.14225170016288757 0.31980884075164795
-0.3015347719192505 -0.13622444868087769 0.3178948760032654
-0.29229938983917236 -0.1334846317768097 0.3101743459701538
-0.29126015305519104 -0.1327388882637024 0.323824405670166
-0.2947198450565338 -0.12294751405715942 0.32380151748657227
-0.27625855803489685 -0.12430733442306519 0.3284248113632202
-0.27499303221702576 -0.11580535769462585 0.3349936008453369
-0.2604376971721649 -0.12988042831420898 0.33202850818634033
-0.260174036026001 -0.13410168886184692 0.33499598503112793
-0.2407229244709015 -0.11841017007827759 0.3347061276435852
-0.2515120506286621 -0.1207125186920166 0.33515703678131104
-0.24162834882736206 -0.11822241544723511 0.3496277332305908
-0.23615825176239014 -0.11814752221107483 0.33969104290008545
-0.2199815809726715 -0.11577242612838745 0.3459435701370239
-0.21593886613845825 -0.11980456113815308 0.3568874001502991
-0.19849219918251038 -0.12072974443435669 0.3427255153656006
-0.20567667484283447 -0.11489763855934143 0.34568727016448975
-0.1874268352985382 -0.10938143730163574 0.3568674921989441
-0.1712014079093933 -0.11890944838523865 0.3658120036125183
-0.17038297653198242 -0.10539796948432922 0.3554932475090027
-0.16250717639923096 -0.10277512669563293 0.35667914152145386
-0.16124674677848816 -0.11242574453353882 0.343755841255188
-0.148975670337677 -0.11572718620300293 0.34415900707244873
-0.13977700471878052 -0.11453962326049805 0.35105597972869873
-0.1299276351928711 -0.11230430006980896 0.35434162616729736
-0.12195909023284912 -0.11039406061172485 0.3616321086883545
-0.11092701554298401 -0.11195969581604004 0.34866392612457275
-0.11758869886398315 -0.10841768980026245 0.35000574588775635
-0.10911279916763306 -0.11656704545021057 0.34120845794677734
-0.10259789228439331 -0.11106827855110168 0.35609936714172363
-0.09353366494178772 -0.11316460371017456 0.3540292978286743
-0.08529040217399597 -0.10765472054481506 0.3465616703033447
-0.07247811555862427 -0.11619186401367188 0.35028141736984253
-0.06942963600158691 -0.11382341384887695 0.34662705659866333
-0.06053343415260315 -0.11342540383338928 0.359122097492218
-0.05543297529220581 -0.12281423807144165 0.34538567066192627
-0.04818132519721985 -0.12086620926856995 0.35236912965774536
-0.054049134254455566 -0.1119200587272644 0.33372223377227783
-0.03667420148849487 -0.1155138611793518 0.34229135513305664
-0.016744464635849 -0.11899900436401367 0.3502737283706665
-0.023584812879562378 -0.12727400660514832 0.34485775232315063
-0.011997014284133911 -0.11311125755310059 0.33378344774246216
-0.009814560413360596 -0.1263798177242279 0.3435041904449463
0.005227386951446533 -0.12642359733581543 0.3279423117637634
0.0003935694694519043 -0.1326460838317871 0.3321208953857422
0.016918301582336426 -0.12554091215133667 0.32090145349502563
0.019292831420898438 -0.1333884596824646 0.32048290967941284
0.023915648460388184 -0.13409405946731567 0.31808388233184814
0.034687578678131104 -0.13498634099960327 0.3013550043106079
0.035107433795928955 -0.14941850304603577 0.31358087062835693
0.040269672870635986 -0.13980898261070251 0.29951632022857666
0.05365532636642456 -0.14098596572875977 0.29358452558517456
0.059062659740448 -0.1326303482055664 0.2943924069404602
0.06773364543914795 -0.13475048542022705 0.2902100682258606
0.07868325710296631 -0.15520653128623962 0.2887447476387024
0.08343201875686646 -0.15460529923439026 0.27801942825317383
0.08086788654327393 -0.15444180369377136 0.2737795114517212
0.09255635738372803 -0.15512177348136902 0.26371240615844727
0.09862732887268066 -0.16649606823921204 0.2601757049560547
0.11912310123443604 -0.15323185920715332 0.25301486253738403
0.12077951431274414 -0.16731834411621094 0.24285173416137695
0.1218876838684082 -0.18298417329788208 0.2366606593132019
0.12976783514022827 -0.1820123791694641 0.23084896802902222
0.14126956462860107 -0.17996317148208618 0.21204066276550293
0.1433587670326233 -0.18556630611419678 0.2197481393814087
0.14894282817840576 -0.18747001886367798 0.20831561088562012
0.14944756031036377 -0.2006259560585022 0.19734060764312744
0.16569721698760986 -0.19725501537322998 0.19201111793518066
0.1664973497390747 -0.20082512497901917 0.1762148141860962
-0.38301846385002136 -0.16114133596420288 0.26902854442596436
-0.3668842613697052 -0.168501615524292 0.267400324344635
-0.36947867274284363 -0.16716104745864868 0.2801438570022583
-0.34888166189193726 -0.16715145111083984 0.2836140990257263
-0.3400823473930359 -0.15635055303573608 0.2970641851425171
-0.32361525297164917 -0.15146934986114502 0.3126181960105896
-0.31066492199897766 -0.14645731449127197 0.3088371157646179
-0.30598506331443787 -0.1579577922821045 0.30929380655288696
-0.3018300533294678 -0.13711774349212646 0.3249887228012085
-0.2921479344367981 -0.12953275442123413 0.31023460626602173
-0.28091704845428467 -0.13073748350143433 0.3118551969528198
-0.2872597575187683 -0.13538360595703125 0.33680033683776855
-0.264223575592041 -0.1387128233909607 0.33154386281967163
-0.2630005478858948 -0.14126190543174744 0.32937657833099365
-0.25785791873931885 -0.1287636160850525 0.3319549560546875
-0.24766486883163452 -0.13812747597694397 0.3323327898979187
-0.23750171065330505 -0.12923145294189453 0.34672659635543823
-0.23291468620300293 -0.12734746932983398 0.35218822956085205
-0.21967336535453796 -0.11251512169837952 0.3432281017303467
-0.2043984830379486 -0.12889140844345093 0.3457275629043579
-0.20174247026443481 -0.13738703727722168 0.35531044006347656
-0.20123112201690674 -0.11705434322357178 0.3441317081451416
-0.1962910294532776 -0.12221267819404602 0.347436785697937
-0.18195921182632446 -0.13262039422988892 0.35921144485473633
-0.17874902486801147 -0.13077658414840698 0.3626028895378113
-0.1739329993724823 -0.11826342344284058 0.3600112199783325
-0.1713322401046753 -0.12231266498565674 0.3629145622253418
-0.16351675987243652 -0.12346500158309937 0.36000144481658936
-0.14687597751617432 -0.10609695315361023 0.35898077487945557
-0.1444208025932312 -0.1201339066028595 0.351004421710968
-0.13266175985336304 -0.11008861660957336 0.33310216665267944
-0.1297169327735901 -0.1279093623161316 0.35154056549072266
-0.11225217580795288 -0.12550276517868042 0.3490041494369507
-0.11161068081855774 -0.11658182740211487 0.3367062211036682
-0.10085323452949524 -0.12515181303024292 0.350142240524292
-0.09890079498291016 -0.12758708000183105 0.35838431119918823
-0.08993411064147949 -0.12299412488937378 0.3605891466140747
-0.07891115546226501 -0.12437039613723755 0.3562682867050171
-0.07328617572784424 -0.13010042905807495 0.3510948419570923
-0.0696437656879425 -0.12643766403198242 0.34768062829971313
-0.06796616315841675 -0.1180553138256073 0.35056209564208984
-0.046961426734924316 -0.1321541666984558 0.34674501419067383
-0.050630003213882446 -0.12091290950775146 0.343489408493042
-0.04966309666633606 -0.13358467817306519 0.34400689601898193
-0.03238934278488159 -0.12047156691551208 0.3383215665817261
-0.018412798643112183 -0.13626211881637573 0.3291311264038086
-0.018215924501419067 -0.11594498157501221 0.3306823968887329
-0.012327343225479126 -0.1490640640258789 0.3286229968070984
-0.00439220666885376 -0.12728172540664673 0.3174055814743042
0.005420029163360596 -0.13957488536834717 0.3232290744781494
0.016187310218811035 -0.13204404711723328 0.32809311151504517
0.019678354263305664 -0.1536870002746582 0.3262980580329895
0.029418647289276123 -0.1419951319694519 0.31026148796081543
0.026681840419769287 -0.13242405652999878 0.3150373697280884
0.0279046893119812 -0.13856950402259827 0.31273186206817627
